# 3D point list with one line of data per point:
#   POINT3D_ID, X, Y, Z, R, G, B, ERROR, TRACK[] as (IMAGE_ID, POINT2D_IDX)
# Number of points: 354, mean track length: 4.91609944830551
17074 -0.56428349754361085 0.22316843541995954 2.803906925454545 95 117 54 0.3365550453358257 4 174 23 247 1 176
17075 0.21606484525672653 0.57851213213410158 3.1094079752875392 101 74 45 0.52282579237127158 14 381 23 253 86 145
17076 -0.55547510911549713 0.23725095454906109 2.8952885091229139 86 151 61 0.30780843315987472 14 283 23 254 86 240
17077 0.12196838942986088 0.70569177347653078 3.5910670360720083 255 247 197 1.0360462756775703 23 266 1 288 86 259 3 253 87 205 66 292
17078 -0.95421806645459739 0.46507311928908945 2.2211888781372928 227 208 159 0.85383599352787098 14 315 23 278
17081 -0.60186431877894653 0.30325880306556102 2.7537626076992647 103 124 59 0.14943043603082135 14 354 23 312 28 194 68 237 87 226
17083 -0.60019186482364228 0.26225684645893943 2.7750325419975708 54 89 38 0.41489573565811388 14 362 23 321 67 216 84 356 66 373
17085 0.17509888971686993 0.58507432275868443 2.9742489729797712 250 228 176 0.37377868367575773 29 352 23 323
17090 -0.77511709496281123 0.21381142027797639 3.2769343115034104 76 52 23 0.49632942437319438 14 465 23 347 1 371 3 340
17091 -1.0248202350609878 0.58077738457827044 2.6434393006030348 182 211 107 0.46423663639362056 14 409 23 366 1 477
17092 0.019794274823386776 0.60371710655277599 2.7910022401362169 196 190 117 0.15312354498162675 14 413 23 377 67 360
17093 -1.0338823519069871 0.55163977159093058 2.797661270984046 67 121 47 0.45682985435104717 14 420 23 380 86 40
17094 -0.67966393470125341 0.12654201393657316 2.5514180166061728 255 240 186 0.0265389365510087 14 484 23 381
17096 -0.58071601257961114 0.18902406109660494 2.6570269521506646 57 98 40 1.7876740358948673 14 487 23 391 1 493 86 405 72 314 28 369 68 357
17098 0.092644915839068032 0.57229481200570309 3.032555120447963 232 214 169 0.78485097196297149 38 477 23 402
17099 -0.81510768882246531 0.23593688346527317 2.9039365713409215 0 0 0 0.87806849970476264 14 445 23 403 1 435
17100 0.23693909275592367 0.59634431523445186 3.1624398589165512 73 49 24 0.4228278576122162 14 382 29 580 23 409 1 356 25 336
17101 -0.38011681532872021 0.75904924006991648 3.3191763357798507 227 209 164 3.2610068343845233 38 616 23 410
17102 -0.24192616161010358 0.23954874451301825 2.9423612207818515 227 209 164 1.9402813256189593 14 449 23 411
17103 -0.14634064430880989 0.24774855303642754 2.9735413237453789 0 0 0 1.1839579039134729 81 494 23 413
17104 0.24201230536326412 0.61419575910376178 3.2197515394144749 96 71 43 1.1448693645180388 14 384 23 414 86 454 67 481 3 450 87 352 68 373
17105 -0.65236315675079459 0.19302040867180736 2.9825851475099343 211 192 152 1.5468059934833516 14 457 25 473 23 417 28 402 45 510
17106 -0.7950128734984041 0.46363009104125419 3.179903049194071 0 0 0 1.7721567075075422 14 458 63 524
17108 -0.72953098377511871 0.15924089353563017 3.1698487274477314 255 255 214 0.49572011590088799 14 464 23 424 1 445 86 383 67 399 3 453 48 462 72 503 89 442 24 506 42 519 58 506 97 513 91 455 10 431 40 492 32 496 15 505 15 621 45 649 92 494 6 548 21 532 87 319 28 442 68 371
17109 -0.97554911901580366 0.55808443344044412 2.1264679302324132 255 248 200 0.16669251269103741 14 473 23 432
17110 -0.056934643806490715 0.5537950619078974 2.7660447751080861 52 99 48 0.7260865715625705 14 414 23 445 86 408 67 429 3 465 48 501 89 473 24 535 58 589
17111 -0.19561381045754153 0.46857845963488343 2.7572851446086437 97 110 68 0.89604172398126947 38 451 23 447 87 288
17112 0.21650447099054582 0.59248061683692888 3.1569827139881381 214 198 155 0.61163083856130096 14 498 23 461 1 355 86 428 67 453 3 479 48 522 10 486 40 493 87 351 28 446 68 334 66 478
17115 0.20394186311358581 0.69076671811204315 3.709986500527465 0 0 0 0.42263354248881357 23 471 73 587
17116 0.015264896458713068 0.63511192684483364 2.7782052375511213 54 92 46 0.69394062026426218 38 563 23 485 87 369
17117 -0.84225555045958722 0.37849167542081891 2.8027487079583833 119 147 66 0.26435046717546479 14 522 23 492
17122 0.33019324433131686 0.27692982351135004 1.8594595055110037 128 108 82 0.51748559837220243 14 560 23 506
17123 -0.60661181072710635 0.17606110927943824 2.6428295756576925 255 251 198 1.4302879133137578 25 670 23 518 1 564 86 471 89 529 28 485 66 554 84 506
17124 -0.79050454174565887 0.16617196957785907 2.9994985197388453 124 92 61 1.9064000706961977 25 687 23 524 1 555
17125 -0.87303360792271389 0.21108872660028 3.634874562232925 0 0 0 1.6627744717002577 81 598 23 526 3 501 40 563
17126 -1.2270089973962803 0.81156731855641029 2.5723784802126253 0 0 0 0.089452550118122517 14 575 23 544
17127 -0.05565511354454615 0.44517849875156323 2.8281396920783326 70 115 47 1.0062368437267089 14 583 25 700 23 546 1 576 86 482 67 516 48 603 72 596 89 575 15 822 45 841 21 607 87 407 28 514 68 433
17128 -0.41085557059941979 0.35059053843543148 2.7426223833344472 46 78 35 1.9455005905509477 25 719 1 578 66 566 84 552
17129 -0.92305815899166088 0.56672138448019049 2.1650917110434116 132 218 116 0.83911169289303411 14 614 23 573
17130 -0.92305815899166088 0.56672138448019049 2.1650917110434116 132 218 116 0.83911169289303411 14 613 23 574
17131 -0.94921121769925265 0.3959082075449859 2.9845245252462873 0 0 0 0.28876577495767047 14 617 23 579
17132 0.10505907157248881 0.68485308766234165 2.8024407669260976 192 181 120 0.24713910240215928 38 64 81 58 14 43 23 197 39 699 88 831
17133 -0.35536823882031499 0.38537764019515286 2.7564746050039268 195 180 102 0.20675307615437832 16 830 2 824 23 217 49 401 55 338 34 294 87 160 68 57 28 61
17134 -0.56140696935810941 0.24505438013395969 2.7890199281151755 65 91 39 0.20041324400953447 25 349 38 203 90 146 14 134 23 243 50 687 36 633 3 80
17135 -0.29436937685897913 0.31105100504349187 2.95296800689212 92 160 64 0.62612183587268189 29 570 14 443 23 255 90 180 29 177 3 325 87 194
17137 -0.22136425576984387 0.33658002286987243 2.8144991213050385 118 134 66 1.0058903542819957 4 113 90 439 23 322 30 812 70 651 51 911 50 883 1 353 86 362 67 375 42 387 32 350 21 400 87 253 28 308 68 267 84 374
17138 0.021925137807635248 0.038438768352095809 1.5425966654287293 217 189 137 1.7456385813341577 14 572 23 542 86 465 67 482 48 575 72 537 89 559 24 581 87 390 28 504
17139 -0.30197619675906895 0.37130478188158295 3.0791942316700132 0 0 0 1.0684926888041448 90 544 23 342
17140 0.16540890684489645 0.8321114401258175 3.5656911931399184 0 0 0 0.63619269183776717 14 462 23 419
17141 -1.2224701365866397 1.1022195142875553 2.5858841204130685 77 122 56 0.055830308387238334 25 29 1 27
17142 -0.76819156645925291 0.19357500742835398 2.2131571312662746 245 227 182 1.1603948754867468 25 50 1 61
17143 0.012056994107911195 0.57292866479358695 2.7971459692980165 75 107 50 0.14304068555774582 16 294 1 93 67 75 28 92 89 113 68 68 66 98
17145 -0.91296835087347383 0.48630387188327295 2.6712397244993613 66 109 53 0.17997869775714234 23 44 36 315 1 100
17147 -1.0440098876810155 1.098899614990426 2.5496050982553218 0 0 0 0.38020925826674395 52 510 100 538 82 769
17150 0.029222347841698443 0.50433718146136608 2.8297518432559308 68 105 43 0.21107848197185999 38 110 1 120 15 191
17152 -0.51295652050050111 0.97024003880504472 3.1655964292596863 0 0 0 1.6745149587498522 76 594 85 609
17156 -0.19780506901616013 0.39721556120041335 2.7958211587606114 70 102 45 0.079397675546304239 70 233 1 139 86 84 28 95
17159 -1.2549110028509678 0.97790833764663843 2.6427073193628665 0 0 0 0.020291767974332686 13 325 19 516
17165 -0.17335362996242581 0.33664300220214433 2.8318787782836821 89 167 69 0.29640480704403921 25 162 1 164 28 112
17167 -0.62865220888579243 0.18888736689370503 2.830632037472109 118 156 65 0.59614397181236745 14 276 1 185 87 185 23 337 68 265 84 257
17168 -0.96494547641514661 0.53051797435837067 2.153293613112222 80 58 38 0.25160158219640238 36 758 1 212
17169 -0.77765384299984186 0.3740775204606871 2.1400047935316278 102 196 91 0.29995443396822824 25 14 50 611 1 217
17171 -0.85335809696312004 0.35964072677273545 2.2434376883024187 85 124 51 0.29460522822138269 38 49 1 223
17172 -0.8195647065006717 0.26814445685673555 2.2173001222537931 227 215 173 0.057184398405118526 23 179 1 224
17173 -1.0085980695990642 0.27453305952390789 2.4358376888652837 106 75 45 2.2678623224770122 52 469 1 242
17174 -0.21120211506369299 1.5818638457084806 3.1394689234970143 0 0 0 1.7126327455733752 50 77 55 1091
17175 -0.13192265017370744 0.49468955437528994 2.7717160364976072 54 83 40 0.24960640769088527 25 432 1 247 66 251 84 351
17179 -0.32890358994550295 1.2918085149452925 2.5725807651023538 0 0 0 0.052258718603207979 12 530 49 366
17182 -0.90466807054565423 0.41003066315265607 2.9230058013033862 248 227 175 0.028167112955255386 36 642 1 281
17183 0.20980668890919596 0.62017926179532057 3.3091207532053959 0 0 0 0.52123386422384066 25 548 1 286
17184 0.081568554968899809 0.070748141948537652 1.6002863967651182 243 229 184 0.89882115165841303 36 665 50 183 81 426 1 303 3 414
17186 -0.78495883653907583 1.0956823297586684 2.5380744137335238 217 210 133 0.16161538004238291 36 882 1 308
17192 -0.83217479270873818 0.37747138909548261 2.6982574977248284 186 173 100 0.25320257257317247 23 297 25 330 1 344
17193 0.25539220145459168 0.6157250128175652 3.1006559010793366 58 38 18 0.18613604940567557 25 322 1 347 66 385 70 497
17194 -0.42170192451056526 0.25642407530644251 2.8836469290094526 130 118 61 0.35500987850320426 25 466 1 364 21 295
17197 -0.05912800952187848 0.55515527271768417 2.7717482580168431 54 92 42 1.3141746120862277 25 504 1 399 32 679 15 619 21 472 28 464 68 407
17199 -0.46745622546409843 1.4002162886386555 2.5622319803507159 0 0 0 0.15643958399756142 35 2049 64 1698
17200 -0.45935005467089218 0.35464780445248772 2.7380167921177336 45 73 33 2.0145165048106479 25 590 1 409 21 455 28 459 68 406 66 354 84 344
17202 -0.79424002505428781 0.31433137499640462 2.8362018909795372 82 149 58 2.0313810033096775 25 603 50 890 1 427
17203 0.18432886359417411 0.73271949406917214 3.5813875348910149 0 0 0 0.44172660931325841 25 362 1 437 66 180
17204 -0.81216861080283498 0.20561598468010464 2.9992683733778631 222 197 153 0.85795983558929656 36 1101 1 439
17205 -0.78185169558093559 0.14927133226533143 3.0349032252141801 86 62 40 0.49218880770660639 50 898 1 441 66 290
17210 -0.42949891967937093 0.25313294402468406 2.8961620265423527 114 136 64 1.2202790112495421 50 1121 1 552 66 547
17211 -0.30542245411219276 0.31035742815157907 2.8047602091933115 162 154 85 0.73102866385643461 25 702 1 580 72 592 86 498 15 814 21 603 87 406 28 512 68 431 66 570 84 555
17212 0.21584445940806929 0.65820156258314377 2.9711158821484847 252 236 203 1.6253177513947015 14 607 23 570 86 506 3 540 87 428 66 595 70 947 84 581
17214 -0.22060399237065176 0.36539813307436003 2.7965001601499009 67 98 43 0.5739775826213287 50 1300 1 604 87 436 28 545 21 640 68 460 70 948 66 596 84 580
17215 0.18738376784157418 0.56502945322640086 2.9955358153372633 0 0 0 0.69000927063767803 14 623 23 586 50 1299
17218 -0.25563071368145096 0.3875575985305123 2.7799743507728589 78 121 55 0.21112377223525458 25 139 38 149 81 110 23 78 1 137 36 295 70 221 72 96 87 55 68 71 66 125 84 118
17219 -0.91282298799034223 0.51850468902848479 2.1345515858692594 170 162 132 0.58970649544870302 25 387 50 978 25 11 14 17 23 175 1 311 66 319 84 299
17220 -0.69076491303135934 0.13369433993402433 2.2163257695302718 153 112 65 0.4471236132014112 25 266 81 34 90 22 1 233 44 721 50 661 36 797
17221 0.22809402986081395 0.60527236793407979 3.0047514296559856 255 255 251 0.73194216049340843 14 523 23 497 1 488 30 953 70 834 86 449 67 478 3 476 48 555 72 534 89 517 24 575 42 611 97 581 91 581 10 551 40 558 32 729 15 736 45 766 51 1178 92 682 6 791 21 557 87 373 28 476 68 390 66 506 84 511
17222 -0.11142157084896182 0.015472332327743921 1.5705019899902317 110 85 59 0.72030515646637883 38 412 81 210 1 384 44 690 30 313 50 829 70 186
17223 -0.68776263459386455 0.16524590237450179 2.1956797351250619 253 242 202 0.80423839626989646 25 48 81 27 14 24 23 182 1 393 44 1148 30 923 51 968 50 1008 36 1011
17224 -1.0265426628280303 0.61936968875946286 2.6380910597328207 71 119 49 0.81935238301251379 38 455 25 506 14 326 90 265 1 396 13 252 71 685 96 706 22 932 19 1396 41 1469 9 1100 94 1040 36 926 99 168 3 188
17226 -0.59942869923072473 0.19008876913311989 3.0324795023510673 0 0 0 1.9429746184202024 50 1230 36 1188 38 776 4 885 25 709 81 681 90 731 29 762 73 646 1 594 23 565 90 749
17227 0.027884438181153659 0.50868222047405598 2.8244465255819264 86 154 64 0.51282319076718152 38 445 81 364 25 513 90 509 17 429 29 450 73 351 14 345 1 405 50 872 70 758 67 298 3 300 48 449 72 437 89 422 24 356 58 392 97 361 10 315 40 240 32 619 15 633 45 673 92 481 21 490 87 251 87 300 28 396 68 318 66 454 84 446
17228 -0.52236459538380409 0.3109095315522461 2.7544714278980433 70 85 42 0.077804251900305155 14 107 1 156
17229 -0.53003610022206948 1.317159586994209 3.8768067976415699 220 202 119 3.4635667611911356 16 582 1 166
17236 -0.2851868295525164 1.5734639442449532 2.6338518202396974 0 0 0 0.0020704554386379017 79 502 95 773
17254 0.31250313106659833 -0.28978705895231172 2.7613863514809949 0 0 0 0.10832184428851654 59 145 65 217
17255 -0.42305150933534347 0.010648110917856196 1.8624857524228426 0 0 0 0.12080685543854602 60 120 76 142
17257 -0.38142629168858183 0.71858333400148955 3.0960912177674333 0 0 0 0.75820955783956756 11 297 93 558
17261 -0.13428785232465176 0.41649099720369787 2.4098322942299193 0 0 0 0.068725025374139437 26 317 100 300
17265 -0.59809233715919907 0.6517862275657661 2.6141970368436627 0 0 0 0.20387654208286887 30 524 51 553 78 521
17268 -0.79339523886528074 1.3781755249316532 2.5613669763198499 0 0 0 0.080819672831643735 49 1188 53 1002
17271 -0.45670791658435211 1.0252814007332338 2.5607225287387205 0 0 0 0.1024937539040285 70 359 83 903
17274 0.14460746625439036 0.69072152565728173 2.8224853475334366 0 0 0 0.4479209484608937 14 48 88 647 98 495
17277 -0.2646148994207157 1.4610802980935382 2.603422765912808 0 0 0 0.15122264473702587 39 985 46 994
17284 -0.16677822944335055 0.40806775309309196 2.4192501840341403 0 0 0 0.29426102599150517 37 978 85 1514
17286 -0.59759271551073812 0.60998608492004536 2.6342631191121204 0 0 0 0.27319059377587546 51 990 63 1774 78 981
17288 -0.28059963996372672 0.45367065995804023 2.0881154234736288 0 0 0 2.2467339057079458 7 1107 51 834
17290 -0.84266107779135924 1.0773433261009699 2.5328540982970291 0 0 0 0.15656189202952289 52 1665 76 2098
17291 1.5199311613144997 -9.7958744137182308 13.208832995280618 251 253 255 0.73911717568542079 26 2151 5 776
17293 -1.3861837064522666 1.1205159724801195 3.1934898080273983 0 0 0 1.6469402605514327 1 544 25 666
17294 -1.3861837064522666 1.1205159724801195 3.1934898080273983 0 0 0 1.6469402605514327 1 545 25 667
17295 -3.1902524587180778 31.783411430882811 21.547906731999976 0 0 0 0.36406198469272255 1 611 5 928
17296 -1.7888222706628834 3.1361833593119268 18.24782243570219 1 1 1 0.38194231997746197 55 2397 5 936
17297 -0.037948863751164186 0.24186655104702542 1.7744462781448394 0 0 0 1.3937571973623823 30 275 49 110
17298 -0.028538857725696837 0.57144601359401204 2.7781794389383485 72 123 62 0.36558198783409912 25 78 86 58
17299 -0.21322318519879316 0.46993799783364743 2.758714203990309 134 124 85 0.12461141630054544 14 67 86 59 67 64
17300 -0.69568973544549517 0.95016207644397999 3.102727851522769 226 204 117 0.66521925872997967 85 615 86 79
17301 -0.22572122418196974 0.37862447630718538 2.792486174342188 84 132 58 0.27412915467193516 23 90 70 239 86 85 48 111 87 66 68 83
17302 -1.2511592798185955 0.93917052761105402 2.6727977863313592 0 0 0 0.11823108333886348 22 363 99 235
17303 -0.75727247450241797 0.51788979915134536 2.6646588230358756 0 0 0 0.10166413949734057 25 109 38 134
17304 0.10116698545522251 0.56723506754577524 2.8391236424093975 64 105 41 0.25106769969337683 1 103 86 89 48 148 72 144 42 144 58 108 66 111 84 132
17305 0.050834623247798999 0.49018428735647779 2.8444408808802755 104 129 60 0.19918233199782989 23 82 86 104 89 135 24 127 40 78
17306 0.050739374216559746 0.49214393123267064 2.8448755205038734 104 129 60 0.13799474250327698 23 83 86 105 48 152 28 116
17307 -0.25332305644012781 0.31726112213966745 2.8150532048575991 225 203 116 0.30245593128443965 81 142 86 109 48 129 72 111 89 118 42 94 21 148 87 85 68 101
17308 -0.14905594984323928 0.36328921497932565 2.8895997255358039 90 149 62 0.25354361021779487 73 100 86 120 24 132
17309 0.064537989757199543 0.52115629702819843 2.9757077878819027 244 229 190 1.6064420219805093 14 140 86 128 67 122 91 126 10 130 48 172 87 106 40 129 66 158 84 158
17310 -0.68500933306908784 0.15122729525043382 3.0522618388074614 232 213 167 0.30056758995882055 73 180 86 147 58 122 10 136
17311 -0.11197303644147652 0.031070901862073896 1.5589084130286663 187 175 158 0.42135863506433574 23 168 86 167 48 308
17312 -0.27217606273525141 0.31486724802660238 2.5474645854565883 192 176 137 0.17373295834603775 14 327 86 185 67 276 48 330
17317 0.056285788036773976 0.54521664365306532 2.8260150339112702 74 126 55 0.25448598500795727 23 213 86 227 67 230 3 60 48 370 72 358 89 341 24 248 42 415 70 647 58 268 97 246 91 238 10 215 40 238 32 372 15 530 45 557 21 409 87 248 28 310 68 263 66 362 84 371
17319 -0.31532757021831148 0.30963499872866906 2.799393591519399 228 209 119 0.28177846391925265 50 673 86 236 72 237 24 232 89 327 42 378 58 244 32 120 15 323 45 162 28 220 68 202 14 122
17320 -0.46009081182940703 0.22932049301871543 2.814576709613922 82 154 61 0.25073387281330617 23 248 86 237 67 302
17321 0.082664464100517532 0.53033166759689776 2.9352735497439508 82 149 60 0.21389000752132525 14 124 86 239 67 236 48 283 72 264 91 361 87 190
17322 0.20924327386439828 -0.92924217531394449 2.1522551005815305 86 148 60 2.9146115800601087 14 123 86 241
17324 -0.68543903253070382 0.14986893305171095 3.022613504309354 246 230 180 0.13982951619464393 38 232 86 246
17325 -0.76349906158551706 0.16830801855765601 3.2094530439916413 91 65 39 0.53074847060602259 14 505 86 257 3 454
17328 -0.50441173290306018 0.31935494709466972 2.7566570335843914 193 178 102 0.069920532774162755 23 310 86 296 67 285
17329 -0.29522792662597008 0.28916900735755086 2.1928977126847511 0 0 0 0.1605015411884404 53 1256 85 1474
17330 -0.47148146208217695 0.28194719994321638 2.7792864166652858 224 204 115 0.32262790994032131 14 355 86 300 3 215
17332 -0.79885150643915481 0.13678629022654273 3.0798399253660724 0 0 0 0.66414167110386202 23 420 86 320 67 397
17335 -0.37670071360751634 0.4244114016043109 3.0734668074844791 224 206 162 1.513369305771868 14 451 48 460
17336 -0.94781355462637529 0.40553188292570813 3.8234965150500044 226 214 191 2.9772374689662557 1 450 86 389
17337 -0.53902231698797509 0.20961305644016448 2.6374894042069958 81 117 52 0.70245643437817207 14 485 86 404 87 368 28 368 68 296
17338 -0.9052040680755109 2.8436078264779114 3.9357804113332309 57 106 55 0.93588687948529792 73 406 86 406
17339 -0.67808630421528471 0.14911187461908174 2.9021675510082887 231 211 164 0.739647620665985 1 499 86 416 67 439 25 605 87 344
17341 -0.76993039065222502 0.21512349499180153 3.5330365751928299 0 0 0 1.0458555363511148 41 1177 56 871
17342 0.18756404842185687 0.57254060471850354 3.0911933279861707 255 239 189 1.1550650584413196 23 552 86 488 67 522 3 537 48 593 72 579 89 580 24 616 97 622 91 608 10 593 40 596 21 594 87 412 28 503 68 425
17350 -0.17000603913635154 0.21134050766100293 3.2141917945713576 0 0 0 0.73341887382383708 70 962 86 521 84 584
17352 -0.63610275679340589 0.1606793212327868 2.2226348274167109 255 252 249 0.3812546071180109 88 35 57 24
17356 0.29318225174317658 0.79948717586344342 2.2664574987436508 76 133 66 0.17438640650133208 11 117 47 105 57 55 58 13
17358 -0.18187310959065692 0.55496617412232496 2.3949298784220199 247 248 249 2.8589727457854344 71 159 57 63
17366 0.14473226310549203 1.1585040094569541 2.7586414847438752 180 186 118 0.11801836086696832 47 244 57 198 92 358 6 207
17369 -0.59677289182865945 1.3531991120973257 2.5478972328463589 0 0 0 0.0096887274015187083 55 579 61 616
17371 -0.5423463027271207 1.3722023476766918 3.5927807482386447 0 0 0 0.031268550274882137 23 137 34 732
17372 -0.42369855629226105 1.6075241642699021 2.7233724769573828 0 0 0 0.19806725844887463 20 567 27 1042
17378 0.0065204926063934521 1.5038225370737917 2.752815461870977 60 96 48 0.23179339866579779 47 277 57 219
17381 0.0095517587885436683 1.493583138784758 2.7586040093679616 205 198 144 0.069249843508553136 47 280 57 221
17384 -0.64081194233737926 1.0554393474658408 3.0580978880901273 104 146 81 2.1694766239906125 76 634 57 230
17386 0.11555735515375765 1.2814809013829855 2.8189281483291344 219 212 152 0.18540653306079849 11 332 57 232 6 232
17388 0.19073117860794819 0.78261702053690485 2.9470781058253359 116 159 95 0.21820049775312725 47 271 57 235 91 117
17389 0.19067072293419673 0.78920609395818753 2.9542490245238295 255 251 245 0.85378953927329415 47 276 57 238 58 140 92 209 6 262
17393 0.30214000208283626 0.77702522600034485 2.2524272320775136 239 229 155 0.078397306963334398 11 485 57 349 92 271
17394 0.32564305925810244 0.65896398660981093 2.2963767267917219 179 183 194 0.3226529005797924 11 114 47 685 57 350
17395 -0.5718969374496008 0.42893763814382968 2.4166467803813823 216 210 144 0.60814001351755931 5 424 57 353
17396 0.25494628940125297 0.91761002741573594 2.2744964388641296 61 105 55 0.32430581202993553 47 113 57 357 92 35 6 69
17398 -0.08248014641195725 1.4497839579776139 2.6615419914406155 208 193 119 0.10607548650220762 11 812 57 411 6 391
17400 -4.6155095465918619 -1.205789578262578 4.4694575736034681 90 157 77 0.79367376100711962 5 270 57 439
17403 0.15150473624364813 1.1477217630688199 2.800458604499326 89 153 71 0.31989425464300175 11 617 47 566 57 441 42 103 91 63 89 80 6 441
17405 0.14717676214143888 1.1866441708539146 2.8161733148824535 75 134 66 0.48771712927201205 47 572 57 448 92 372 6 576
17406 0.14416573931307297 1.1846188582989943 2.8132411707565046 75 134 66 0.38705456147850825 11 308 57 449
17408 0.090412714509460507 1.3352450083570246 2.8062426826945726 77 126 61 0.1243110573581081 47 289 57 450
17410 0.17627743375709998 0.84077989047886892 2.93760973947288 79 153 81 0.21535936348740639 47 577 57 456 92 197
17412 0.19977216299124867 1.0672838420496347 2.2693698871075019 125 103 81 0.8458964572176666 88 264 57 542
17414 -0.44196755917938352 0.61266877490325455 2.9993616154478873 227 220 140 1.5599331194855415 38 598 57 598
17422 -0.016311069077966367 1.5380781300747066 2.7291425834425072 117 147 87 0.33838015657600706 11 824 57 611
17424 0.092223032799381099 1.3374169347663609 2.8273901956260747 66 118 60 0.18570369773287757 11 827 57 617 92 374
17425 0.0041010219462096487 1.5045375588000192 2.8073662260491119 144 166 113 0.29995376950029318 47 756 57 618
17426 0.22253377819098524 0.98533872857821159 2.2401689164482383 79 138 70 0.19928430374585115 69 710 57 662 92 551
17427 0.26575520171261646 0.88700681630476852 2.2797794566879475 72 129 65 0.37467430164551269 47 456 69 712 57 666 92 439 6 509
17432 -0.20021603337511956 1.8146305934778746 3.5120965326865052 0 0 0 1.9295025403555917 47 931 57 734
17433 0.28883510237855858 0.7909269078176695 2.2404370088187608 59 109 58 0.52496314023714929 11 1025 57 746
17438 0.17056476450700675 1.1357543303732638 2.245578459159304 162 145 124 0.32069529916354961 88 1072 57 815 6 812
17439 0.17008173062545734 1.1357166633273375 2.2465999585770224 162 145 124 0.19251869026309321 88 1071 57 816
17444 0.26079001893278247 0.65925445913963987 3.040233142907752 60 35 13 1.4343489126925617 39 1383 88 1206 57 895
17446 0.31559551535760116 0.60896627733362918 2.3980116414345458 90 141 85 1.3287934978815601 69 1113 57 902
17447 -0.07000561913390313 1.6351255291496429 2.8413109247744033 255 255 255 0.61256476996169373 11 1258 57 910 47 1143
17449 -0.014110666715062739 1.5758545817728802 2.9941446439326316 0 0 0 1.4567016645558883 47 1201 88 1278 57 945
17450 0.0013270822986048703 1.4376839021911074 2.9068273497807455 255 254 255 1.1081038130342331 88 1299 57 969
17451 0.23724660182175267 0.57042239742034007 2.4250934035396727 48 60 41 2.8952645678208135 47 1129 57 901 69 1256 11 1241
17452 -0.44429436248961496 0.34993462168996969 2.7541637501222755 185 171 97 0.28081485717687749 16 1281 63 1406 55 1534 77 1088 95 1347 2 1204 62 1217 34 1507 74 1452 35 1055 12 1154 59 1048 37 1022 100 373 82 1124 85 398 54 1207 61 427 98 1060 8 1266 31 1158 94 226 38 479 4 518 25 446 90 433 81 376 14 351 23 308 1 346 86 295 49 1073 43 1103 67 205 3 292 48 250 89 223 24 71 87 230 28 286 68 239
17455 0.041082276220508362 0.58908279115009043 2.8032734109128783 70 127 61 0.52756810304271817 2 1783 62 1810 12 1710 16 1662 63 1679 55 1816 49 1721 43 1490 77 2024 95 1738 34 1920 74 1858 35 1956 54 1706 98 1547 8 1569 31 1507 33 1428 39 1165 46 948 14 415 23 378 86 350 90 400 17 255 29 307 67 366 48 507 25 503 72 500 89 479 58 551 87 339 28 435 68 361
17456 -0.68125868444315474 0.12023114236749939 2.2202985349595212 255 239 187 0.42253730979150628 44 724 50 663 41 1272 9 1064 94 987 36 801 4 615 99 770 38 426 71 1085 96 1082 22 1048 56 698 25 407 81 337 90 370 17 508 29 419 73 323 1 235
17458 -0.49095153638176475 1.2018079228869591 2.5449448254039031 91 105 59 0.74727973062749597 12 1549 8 1344 30 837 83 1500 5 688 39 1157
17459 0.34770871678550774 0.4742702023062404 2.1572692788995225 168 169 179 2.0367727751375093 26 2285 79 2186 20 2136 49 2054 63 2197 55 2242 43 2211 77 2568 62 1959 34 2425 95 2245 74 2338 35 2426 59 2493 37 2501 100 2385 82 2521 85 2452 54 1851 61 2495 31 1612 8 1683 64 2221 27 2024 7 1979 18 1886 53 1972 65 1918
17460 -0.040002655239806895 0.026846375681596368 1.5647057406137395 1 0 0 0.38952910016507303 86 171 67 10 3 178 87 212 28 248 21 333 68 149
17462 -0.11417923360151347 0.39285996089988334 2.5631842724288663 194 179 140 0.19656548331918222 86 36 67 43 48 56 1 239
17463 -0.29219612986556881 0.39581844571388264 2.7169980127150861 65 97 46 0.53764103690561205 86 54 24 64
17464 -0.61942669072566403 0.30163049860482527 2.7539372089903362 75 122 52 0.41802545023773763 86 215 67 61 3 54 48 70 72 62 89 68 87 156 68 173
17465 -0.10206963373690273 0.89532732286838734 2.9311745219006009 0 0 0 1.883287222859388 57 220 86 197
17468 -0.31549951578153668 1.1560506096577183 2.9814052580197115 0 0 0 0.32018280793220177 57 241 79 565
17469 -0.58076694330197465 0.24038546978473119 2.7899730626021775 92 142 62 0.10780173289170308 14 136 67 78
17470 -0.34241310323861884 0.30596667732016514 2.7966604907238271 101 148 66 0.26316964646281427 23 112 67 83 36 317 48 104 68 92
17471 0.040162719847235406 0.50893080391814072 2.8353663310720125 253 229 134 0.27803675871443512 86 233 67 93 3 68 48 276 89 249 42 132 45 412 50 310 21 303 87 182 28 110 68 205 84 254 30 605
17473 -0.33595514158213952 0.27671699370801872 2.8674695889363053 86 155 63 0.51698397624244885 29 361 67 102 97 89 10 90 40 250
17476 0.064155115999537021 0.51615410231051706 2.9387723410742597 76 142 57 0.29494476084631993 86 122 67 115 48 166 89 154 24 144 10 114 87 101
17477 0.095995422995633684 0.54967281570061222 2.9707336932930817 77 140 51 0.20977966648780308 86 125 67 118 89 157 24 151 97 145 10 125 28 124
17478 0.12905943440135975 0.53742741924323256 2.9842970520692829 255 252 203 1.0402354320733349 90 127 67 127 89 267 97 282 10 249
17479 0.058286937835620084 0.51820797452607548 2.9920802720577506 252 237 191 0.12158349807054086 73 129 67 129
17482 0.0084441639795439782 0.071820247835273729 1.5327221706001888 251 200 164 0.51089821087910436 86 264 67 169 68 143
17483 0.070787712350667997 0.072704120364739402 1.5745652355915423 3 1 0 0.64080285088353151 86 172 67 173 48 198 72 184 96 1 89 186 24 181 58 3 91 2 32 5 87 214 28 252 68 216 66 235 84 221
17485 -0.55599230932090737 0.096461961586536957 2.3909601555386195 163 144 119 1.6050988410055798 67 181 91 303 24 311 68 44
17486 -0.48046705838552589 0.35197697115268745 2.7494377616881152 209 198 114 0.30187875322313906 86 211 67 202 48 243 72 227 89 72 24 65 42 53 97 40 91 46 10 49 40 219
17488 -0.61446934851083057 0.24414777379658192 2.7859064691141824 79 140 59 0.31098106254988039 86 228 67 220 3 217 48 83 89 81
17489 -0.6112129110608987 0.24225751414018548 2.7840465082964601 79 140 59 0.24089539696643372 86 229 67 221 48 84 84 238
17490 0.15261046556733515 0.64178543082713468 2.846015026103685 110 105 63 1.5222649304161273 86 353 67 229 3 470
17491 0.15262049225369673 0.59333386395700294 2.8576386892966372 189 176 94 0.2255735754273954 86 232 67 232 28 114 68 98 66 116 84 137
17492 0.10172589813008684 0.53326206018851474 2.8708142941403438 99 155 66 0.18211013830076136 14 94 67 234 3 218 10 230 91 254 87 89
17495 0.27465927838662091 0.66092316767984316 3.1729562120273802 226 216 194 1.4258588921500113 86 321 67 253 10 269
17496 -0.79071984547191732 0.15992182242233496 3.5611149951313874 255 253 202 1.0888291633271676 86 160 67 258 3 260
17497 0.12637655670682413 0.53126826945563943 2.6809083902746238 75 124 68 0.97505656506825045 86 403 67 279 3 190 58 63 91 36 10 396 42 496 87 223 28 80 68 53 84 230
17498 -0.57878174095534352 0.31108303171712315 2.7525523539076899 112 156 73 0.35749925369224295 86 291 67 283 3 294 48 339 72 223 24 59
17500 -0.65124191895056227 0.24582998166148773 2.7851821086461959 173 175 102 0.98844660357608594 86 225 67 292 48 246 24 73 40 48 32 71 45 318 21 260 87 241 68 185
17503 0.16278617870990997 0.60755156302034408 2.8508348425017531 57 99 38 0.52733377024398076 86 359 67 301 87 299
17504 -0.076829928627276139 0.40517910525244905 2.892213554706867 172 159 87 0.26389931837789371 86 305 67 310 89 352 24 365 97 444 91 446 10 413 40 356
17505 -0.076244919753917423 0.40540838788157663 2.8918344624398711 172 159 87 0.19244552701447287 86 306 67 311 3 315 89 351 24 364 10 414 40 357
17506 -0.34955676325227986 0.28232794435635966 2.9203193656182505 166 156 82 0.31603419819159456 14 380 67 312 3 385 40 359
17507 -0.08948638729754077 0.40693983529532296 2.9380770677715971 159 152 81 0.59877342479951157 29 561 86 308 67 313 3 384 89 356 91 359 10 335 40 366
17509 -0.72645057219698894 0.15235552623339502 3.1337159379592534 188 174 136 0.63075059046457371 86 254 67 327 48 286 72 154 89 269 24 278 58 134 10 262 40 283
17510 0.23864110653772486 0.60313159164422392 3.1656469225542274 64 43 21 0.59488250699528256 86 322 67 328 3 334 48 469 89 449 24 462 58 518 97 395 58 321 91 461 10 436 40 451 87 318 28 339 68 335 84 284
17513 0.17634623446541686 0.68795702349332721 3.7004501719851892 149 130 106 1.1155410866563022 86 260 67 335 3 343 48 394 58 529 40 504
17515 0.17627184140244834 0.72112062201881721 3.7318480356398767 239 230 221 1.241047866275802 86 326 67 337 3 344 48 476 89 371
17516 -0.082897599061804564 0.0086304135601312504 1.5810043441814101 30 17 9 0.42439605513599826 86 327 67 339 3 266 81 331 28 344 68 285
17517 -0.04089114532229754 0.55912559465514222 2.7857745675643781 213 206 124 0.41541829160082833 86 349 67 361 48 441 89 415 24 489 58 378 97 433 91 432 10 402 40 421
17518 0.13359428419779001 0.60085205474079539 2.8430247733350416 62 108 41 0.31210788528618622 86 356 67 374 68 315 66 447
17519 -0.6034032554462655 0.21394345802856427 2.9166643396063967 91 142 63 0.49261377926604749 86 370 67 384 3 386 87 307 68 270
17521 -0.73443459103667785 0.15894448943128661 3.2090466380655647 211 195 169 0.77524898309984602 86 384 67 400 3 401 23 426 40 386
17522 0.20685275944217624 0.74695119917858099 3.6164139124162467 255 255 255 0.54747179965485993 86 388 67 404 48 526 72 466 91 387 21 423 15 565 87 322 66 482
17523 0.041196604761449929 0.05981226173465716 1.5763331224403025 61 43 26 0.35518338507050878 86 391 67 407 66 490
17525 -0.57449224958416933 0.36832524942451994 2.7134637644626678 77 125 53 1.1107220745021318 86 344 67 424 48 417
17527 0.014230321603379087 0.63464583206268665 2.7805354648531244 66 122 63 0.13094824269632294 14 482 67 428
17528 0.12240525265122132 0.63228239592342061 2.8315718797323863 179 182 107 0.12851321198059837 86 445 67 432 87 341
17529 0.21538291547371197 0.58370368096343717 2.9765398506372844 244 227 189 0.88495549826187647 86 414 67 444 3 383 48 517 72 505 89 491 24 505 42 576 58 567 97 508 10 525 40 487 32 637 15 651 45 685 21 502 28 441
17530 0.22807229808410612 0.59546650976385662 3.0392120484710512 74 46 21 0.71175623679359223 86 421 67 448 3 436 48 518 72 506 89 494 24 543 42 579 58 603 97 554 91 556 10 529 40 533 32 689 28 443 68 330 66 473 70 655 84 458
17531 -0.75114476930801666 0.15298335719361425 3.1568976110128739 93 63 34 0.97591622953861457 86 430 67 452 3 481 48 388 45 178 87 317
17532 -0.056434438771780782 0.025569853374362739 1.5477040310085706 225 177 107 0.35692484084971909 86 390 67 462 3 457 14 508 48 527
17533 0.095569034011420001 0.10707892522900592 1.5613591445994024 161 115 77 0.58228979344936815 86 431 67 463 48 478 72 469 21 512 87 355 28 451 68 374
17535 0.28778130751057918 0.26600899346293455 1.6818290084922041 0 0 0 0.8387437538724104 1 535 67 485 97 562
17536 -0.32109849162486581 0.40124562767627742 2.7398175502179907 94 107 57 1.6615281880773809 86 462 67 499 3 517 48 567 72 527 89 530 24 590 58 617 87 383
17538 0.0051132461025151787 0.034811821454833525 1.5904350816160564 52 36 21 1.0622201812305052 86 479 67 506 3 503 48 576 72 564 89 539 24 582 42 642 58 630 97 588 91 585 10 563 40 566 32 762 15 738 45 769 21 580 87 402 28 505
17539 -0.056549374238289388 0.44551042019599185 2.8285417805069346 78 133 56 0.93771117283930316 86 483 67 517 48 602 72 595 42 681 89 574 32 808 15 821 45 840 1 577 21 606 87 408 28 513 68 434 23 547 66 581 84 562
17540 -0.80882902980961835 0.16330176183910555 2.9547329512170206 0 0 0 0.40392601036558623 86 487 67 519 87 401 68 424
17544 0.087869494349503724 0.51627240804361385 3.1272492618741832 0 0 0 1.3320694722034079 3 549 97 684 48 645
17546 -0.053509420829880791 0.42559400799741509 2.8952279159461525 83 155 64 1.8819675216827436 67 545 3 547 89 608 58 706 97 667 91 642 10 623 40 621
17548 -0.2624354357382217 0.29496242514270776 2.8382082340065184 83 152 61 1.1984943381114366 81 479 23 334 67 233 81 153 90 306 17 293 73 268 29 346 3 312 48 368 72 431 89 340 24 353 42 502 97 436 10 465 40 346 32 485 15 500 45 373 87 306 68 324
17549 -0.47965024681263724 0.30721626772784816 2.7680205577250558 110 119 61 0.31673736295722549 4 658 83 771 38 596 14 430 34 980 1 420 67 363 16 1271 63 1413 55 1873 95 1698 48 429 21 459 28 375 66 457 84 430 45 625
17551 0.0089831254797330395 0.62334460130753921 2.7800040984712178 64 119 61 0.13358028286394588 86 196 67 67 40 42
17552 -0.035959768111063828 0.024263407889691002 1.5737466551691128 163 126 78 0.46407257342755098 86 9 3 13 87 7
17554 0.1033167191999349 0.66478855967092032 2.8065331765473647 88 137 74 0.083166004397390081 86 209 3 44
17555 0.11922667706288195 0.6781779776170227 2.8108305974429872 208 194 132 0.226022275839593 14 46 23 47 3 45
17556 -0.55099435993945067 0.33885562359941801 2.7341379840172082 76 125 51 0.23579227109100726 23 70 3 46
17557 -0.55696712961262174 0.34892800059996842 2.7371099781750932 76 125 51 0.10312999598649948 14 240 67 196 3 47
17558 -0.63514782264155434 0.2609962299520252 2.7681781115879707 199 192 109 0.31062057083745737 86 80 3 63 48 77 89 73 87 166 68 179
17559 0.087475474438060891 0.55609746121636539 2.8372973699595634 93 153 65 0.23341242714140856 67 91 3 64 48 145 89 131 24 124 58 106 15 201 45 237 28 108
17560 -0.633398785413543 0.15250570474107045 2.7367560916306513 239 217 168 0.28956294060814403 81 164 3 66
17561 0.065482086955859636 0.52624140168498001 2.8416582600079598 109 157 70 0.16303430000367386 90 81 3 67
17563 -0.63887922471448033 0.19849053135628061 2.8241230368703416 114 140 71 0.14932008011622216 86 110 3 97 68 90
17564 -0.12859311349806002 0.37298076979927253 2.8777947756340199 79 142 57 0.18567195831506997 29 104 3 102 10 96
17566 -0.020246311498931871 0.44872240347761838 2.9277274323322504 78 143 58 0.11237150801843976 67 116 3 112 97 130 10 112 40 110
17567 0.018561857025537559 0.48978006044694622 2.9756944252500905 253 238 194 0.28833684807942861 86 131 3 123 48 170 10 128 87 108 68 121 23 132
17568 -0.043696544650086502 0.44914442891583584 2.9724819390839574 85 155 62 0.39727528933514944 67 242 3 126 24 275 97 143 91 270 10 246 40 127 14 155 87 195 28 126 68 122 45 570
17569 0.22986945231802747 0.59102821348488033 3.0671924879658303 71 48 28 0.35275299341656363 67 142 3 138 89 169 24 157 10 142 40 150
17570 0.27081305043791137 0.64392402283895933 3.1262086238067299 93 67 31 0.21578796702066269 67 149 3 143 48 179 72 175 89 174 24 162 58 165
17571 -0.0025726354229854698 0.045406373298946853 1.5654820225244275 90 66 44 1.1854080455860359 86 5 3 175 68 148
17574 -0.15811990972210324 0.34616098523521222 2.8419627611901404 78 145 59 0.26100949509019328 90 296 3 222 89 127 24 249 97 245 91 243 87 92
17575 -0.0021996369366187041 0.45115702821837278 2.8766109860689637 89 154 64 0.43571430684476398 67 103 3 224 48 158 97 263 91 89 40 256
17578 0.036098625665712397 0.49975623676027547 2.9635649888143614 78 137 54 0.38250286361269903 67 241 3 234 24 371 42 305 58 423 86 371 97 381 91 367 10 342 40 369 92 394
17579 0.27718820207821354 0.66779129395126102 3.1093767825080465 255 255 202 0.39029541780195454 86 315 3 241 87 263 28 410 68 280 23 135 84 278
17580 -0.63015276728269543 0.19629373855739343 3.0126274094637613 188 173 147 0.19734411397073107 67 246 3 243
17581 0.21653896833620612 0.65313202045807373 3.2997841191745194 81 58 33 0.5335538790452774 67 257 3 251
17582 0.20491275347383819 0.64668036433768272 3.6390960369413778 255 252 222 0.32076376992516575 14 186 3 257 68 140
17583 0.20491275347383819 0.64668036433768272 3.6390960369413778 255 252 222 0.32076376992516575 14 187 3 258 68 141
17584 -0.62350890254592573 0.23850035120720925 2.7857507103090842 85 153 64 0.5041190213465262 86 358 3 304 87 294 28 373 68 303
17586 -0.38540682036785878 0.68068896354329533 2.986311567960799 80 149 60 0.18454025132264462 99 516 3 313
17587 -0.16653587164325667 0.66551773736421149 2.9838476535559284 172 167 88 1.286421684380485 57 612 3 314
17588 0.15628994656487316 0.56683657263242182 2.9936451964089685 255 255 219 0.17962154587976101 67 317 3 321 48 463 72 451 24 372 10 348
17589 -0.18004974660521236 0.35708263746823055 2.9407686002361322 84 151 61 0.21886288861025699 29 483 86 244 3 323 10 336
17590 -0.17835798747123946 0.70744346454699158 3.1033329660612643 202 185 147 0.13778815057439242 17 469 3 328
17592 -0.33688461881446186 0.28641560721096654 2.8075732519334125 200 200 108 0.84148411775385223 29 464 3 377 48 442 24 236
17593 -0.46395569496750499 0.24142337068937247 2.8816513763199891 84 146 59 0.32503848783446332 73 462 3 382
17595 -0.13044002748496367 0.29961191084653199 3.0234351511502826 0 0 0 0.18580952225231673 17 617 3 395
17596 -0.77677941884558166 0.13831343360301801 3.0888643397407147 204 148 87 0.70466148402021067 86 380 3 397 87 315 68 278
17598 0.079420673318041063 0.08155163442845581 1.5754114635472953 79 54 25 0.92400724043113458 86 433 3 409 24 518 97 523 91 522 28 480
17600 0.20528973837902043 0.63135548158479682 3.2960653192416696 209 185 141 0.63700668980050101 67 401 3 452 89 498 72 380 24 510 42 321 58 438 97 469 91 514 10 534 40 498
17601 -0.26098130897628757 0.31343974701459715 2.8091907282133191 170 181 96 0.95179775566473634 73 520 3 472
17602 0.054189879738272995 0.065155967103491141 1.5476268106109146 134 101 67 0.8654003018617078 14 529 3 484
17604 -0.1194404068215885 0.39491942680149972 2.7998441762350277 172 190 101 0.73255547122644038 67 528 3 532 89 587 24 633 58 690
17605 -0.63657475566716992 0.28867244621253096 3.1038749030545443 0 0 0 2.2597992727189604 67 539 86 507 48 616 89 602 24 638 58 694 97 653 97 671 91 644 3 541
17606 0.092279121382386003 0.54458105031175219 2.7312619659015636 99 148 82 0.99291767847055057 23 577 86 503 3 544
17609 0.2215242347230173 0.61608681756987571 3.2070977273065613 203 187 146 0.59733852738041249 25 173 81 293 90 461 17 344 29 210 73 393 14 383 1 170 3 335 86 253 67 159 91 286 10 153 91 158 40 167 87 203 68 133
17610 0.15688562419957502 0.68612475615204971 3.595866684825165 255 255 213 0.57906037360025797 25 203 90 203 29 244 73 197 14 305 1 190 3 254 86 159 67 166 28 149 68 137 84 167 70 281
17611 -0.090259827691033301 0.40709482829648719 2.9654141272960723 88 160 65 0.51822436949555006 81 286 29 482 3 324 14 439 86 311 97 379 91 365 10 344 40 372
17612 0.13927377549654246 0.56489227449755419 2.948760564212487 102 147 63 1.0144108339979601 86 476 67 504 3 509 56 943 4 832 38 741 25 661 81 645 90 674 17 681 29 712 73 622 23 538 14 549 1 524 50 1100 36 1075 70 833 30 948 25 630 67 503 48 590 48 591 72 557 72 558 89 555 89 556 24 595 24 596 42 657 42 658 58 655 58 656 97 605 91 593 10 578 40 582 32 757 51 1231 15 763 45 765 21 576 87 387 68 413 66 531 84 510
17614 0.015840308634524514 0.51756324265454179 3.0663699812359217 0 0 0 0.0077268160667825058 73 467 3 443
17616 -0.65096129276720549 0.30056369137195837 2.749172921605846 72 108 46 0.32232402143808497 86 61 48 67 87 35
17617 -0.5235657874327696 0.31482206203310953 2.7576780883465042 96 143 64 0.19468182437528314 14 106 48 79 21 102
17618 -0.20819483052058069 0.45655314686333237 2.7636947522335467 67 113 57 0.082469185157704142 86 65 48 96 89 88
17619 -0.2632311150111043 0.3780198072337308 2.7828527290279026 197 191 103 0.17353536433586736 1 262 48 102
17621 -0.18808634853968786 0.41383316608750131 2.7879691381543426 100 143 69 0.16727920756901868 25 133 48 107 21 138 66 126
17623 -0.3387786105026111 0.2814316696840003 2.8096359638212474 221 201 110 0.28352026556116156 81 150 48 117 87 82 32 331
17624 0.062195535815317865 0.61601890373044721 2.8039065274940138 77 132 66 0.51408709667089969 86 72 48 119 89 115
17629 0.081847006797360594 0.58413224322208401 2.8198679530475261 74 128 59 0.17275983063570527 67 81 48 141 72 130 97 84 21 165
17630 0.081847006797360594 0.58413224322208401 2.8198679530475261 74 128 59 0.17275983063570527 67 80 48 142 72 131 97 85 21 164
17631 0.13482453194339872 0.57257597332527266 2.8527017639303041 52 76 28 0.12612867362410235 86 92 48 153
17632 -0.15029119181261635 0.38015682066138134 2.9669319086519361 92 156 64 0.26697950609639298 67 243 48 165 91 118 97 136 40 124
17633 0.25883359394017746 0.63037660650611915 3.1634199705095374 182 155 130 0.25058829800092192 67 154 48 182 91 284
17635 -0.66750772607483544 0.31214122640564179 2.7462249915603207 147 136 74 0.076949106021569916 67 197 48 239 89 64
17636 -0.66750772607483544 0.31214122640564179 2.7462249915603207 147 136 74 0.076949106021569916 67 198 48 240 89 63
17637 -0.60270477960643998 0.30272174540107821 2.7545727127272275 137 163 80 0.22714314184364212 67 204 48 242 89 69 24 58 42 49
17640 -0.13694938540764628 0.44719549707971307 2.7905462116776931 168 175 96 0.23277159725467553 23 216 48 267 81 97 72 245 24 95 42 96 97 68 32 149 15 158 45 199 28 217
17642 -0.73235602129110777 0.50385928365455723 2.6652980348664967 0 0 0 0.016786538304976898 25 112 94 254
17644 0.03562399530605867 0.49381818777185826 2.9367289377279646 76 141 55 0.15740903680461926 67 239 48 284 24 273 58 302 97 274 91 363 10 242
17646 0.25187420105244779 0.61456606071542674 3.0970562655710747 75 50 28 0.19444877610634145 67 146 48 297 24 160 97 159 10 145 40 152
17648 0.33176623157091734 0.56842574117923428 2.2773581637973646 94 76 56 1.2362933428541993 67 30 48 318 72 301 89 292 24 195 10 382 40 308
17649 0.095576329284795397 1.2623218281601685 2.6997291783136714 177 164 125 0.13271457758699579 67 271 48 325 72 204
17650 -12.247234895484986 16.68523140564988 12.668817016321213 104 189 93 1.4299636995798437 5 707 48 352
17651 0.048811466812253346 0.61490581684696322 2.7985269653379397 102 143 75 0.49830088224695046 25 278 48 357 89 330 68 250
17653 0.019625618718013105 0.52320997070719655 2.8140768138135464 232 212 124 0.42516433652022206 1 338 3 296 48 366
17656 -0.62519730692699294 0.19349441447721757 2.9836587058483044 255 255 219 0.2239751316672593 3 392 48 376 72 353 89 350 24 363 42 398 58 395 97 373 91 358 40 439 32 473 15 482 45 512 92 466 6 379 21 476
17657 -0.56327878825724254 0.23327413994509644 3.0163839961784182 8 0 0 0.3579547725288646 23 343 48 379 72 137
17659 0.059184431565585949 0.067017055855468202 1.5747342235013579 255 255 255 0.78083912898691588 67 265 48 396 72 288 89 374 58 186 42 1 97 305 91 291 10 374 40 304 21 205 28 345 66 328 84 331
17660 0.40650853165382422 0.3107789043209801 1.8158498541987553 222 204 163 0.86624219305583883 86 179 48 399
17663 0.16370309477527156 0.96690017806582473 2.8132339114317482 109 188 91 0.64933791221481174 67 48 48 435 89 409 24 424 57 784 42 567 58 550 97 492 91 435 40 420 32 684 72 496 15 698 92 672 6 780 21 390
17665 -0.29165648738043781 0.34921541513088966 3.0146234384307746 223 206 161 0.65483472820360733 67 394 48 459
17667 0.25160175137454988 0.64191598891155022 3.0613077338381562 69 49 31 0.44924813124048218 67 320 48 468 72 455 89 444 24 454 42 534 58 514 97 458 10 354 40 377
17670 -0.6779423262651747 0.11815761703899511 2.5539304193404493 232 214 166 0.56929319022550473 67 419 48 488 72 398 89 383 24 480 42 548 58 457 97 416 91 405 10 451 40 467 32 555 15 576 45 601 92 556 21 442 28 363 68 291
17672 -0.11200606979235332 0.47102259701314009 2.78866810167882 236 217 130 0.22629654220301995 86 411 48 505 28 468 21 552 68 387 84 490
17677 -0.60245541783841572 0.21199645888455268 2.6889428918154832 57 98 40 1.6648797212781072 48 565 72 543 89 547 24 604 21 569 86 473 87 382
17682 0.027074978396422311 0.032041075141441194 1.6417933791844819 231 213 167 0.39191245091615973 81 657 48 594 42 666
17683 -0.64081941239043427 0.2909412047286406 3.1070943995601041 0 0 0 2.1006245193206055 67 540 48 617 86 508 89 603 24 639 58 695 97 654 97 672 91 645
17684 -0.64234725893730515 0.14876829423473986 2.6674396643776572 255 241 192 1.4786343634174468 67 534 48 623 72 616 89 596 24 631 42 686 58 681 97 645 91 627 10 608 40 607 32 817 15 828 45 844 21 624 87 421 28 532 68 449
17685 -0.66889974742714875 0.15798592103435746 2.9048903416026799 249 229 181 2.0283269659639545 72 611 89 589 24 626 42 674 58 669 97 639 91 624 10 615 40 611 32 797 15 780 45 806
17686 -0.34038555137264381 0.52839344401207722 3.450736046263613 0 0 0 0.88484846053627186 14 626 48 650
17688 -0.050965503178467389 0.5461639481110111 2.7824023818182582 70 116 58 0.17792991848268014 25 87 23 54 1 99 48 106 62 881 98 837 63 204 55 228 95 335 16 286 2 304 86 63 72 241 89 106 24 93 21 294 87 48 28 211 68 62
17689 -0.20604740456043161 0.33346830419549445 2.8253590754275386 66 97 40 0.37541091084073264 30 353 50 366 25 165 23 115 48 140 67 98 3 86 21 157 87 88 28 107 68 105 66 156
17691 0.00021694715293252287 0.59870991092604187 2.7815443957128414 62 104 53 0.33475617048267903 38 295 81 242 90 254 17 57 14 223 86 203 23 202 67 211 48 264 63 867 55 208 43 270 77 1071 95 1002 2 1315 16 1355 62 1352 34 1057 74 1052 35 1133 12 1268 59 1075 37 393 82 341 54 955 98 1192 8 865 31 1167 89 237 24 235 87 227 72 242
17694 -0.73049474616767518 0.16191356043871222 2.9791323313711029 65 44 26 2.0941442818219751 67 494 48 510 36 1169 56 1008 4 914 38 801 25 710 81 680 90 730 17 760 29 778 73 663 14 587 23 553 3 522 86 478 89 514 24 497 58 99 72 499 97 371 10 522 40 527 87 388 68 414 66 533
17696 -0.78104855357066283 0.15737093313563152 2.8812409373947152 0 0 0 2.0844211233012451 72 571 89 533 24 565 24 608 97 598 48 547 10 573 40 554 48 583
17697 -1.3261323621833057 2.0021034095920456 2.7946800173756028 252 252 252 3.4360306563502494 23 22 72 11
17699 0.28317586430954172 0.72855017070183126 2.2365843752649668 112 195 93 0.18083782358148387 48 30 72 24 45 112 21 69 28 32
17700 0.29171008532841602 0.65045586762997532 2.2702205363885053 250 246 229 0.27730555484334796 48 32 72 36 15 79 21 83 28 36
